ply
format ascii 1.0
element vertex 48
property float x
property float y
property float z
property uchar diffuse_red
property uchar diffuse_green
property uchar diffuse_blue
end_header
-2.466780 -0.551609 8.238015 255 255 255
-1.859187 0.388445 8.187396 255 255 255
-0.836665 -0.362471 7.459436 255 255 255
-0.792601 -0.268461 7.325985 255 255 255
-0.767227 -0.236996 7.268663 255 255 255
-0.778638 -0.337226 7.375071 255 255 255
-0.778638 -0.337226 7.375071 255 255 255
-0.768754 -0.306039 7.285633 255 255 255
-0.739547 -0.265467 7.279434 255 255 255
-0.726560 -0.243461 7.242600 255 255 255
-0.700411 -0.293689 7.330557 255 255 255
-0.663878 -0.294723 7.357138 255 255 255
-0.009967 -0.814811 7.254867 255 255 255
0.124327 0.192589 7.185392 255 255 255
0.187616 0.104763 7.248533 255 255 255
0.214544 0.076213 7.189939 255 255 255
0.230796 -1.093623 7.102803 255 255 255
0.263633 0.099671 7.221892 255 255 255
0.262633 -1.065381 7.070366 255 255 255
0.274211 0.241678 7.134210 255 255 255
0.294966 -1.021136 7.071903 255 255 255
0.418368 -0.070606 7.408301 255 255 255
0.436942 -0.109684 7.478347 255 255 255
0.415608 0.412011 7.110411 255 255 255
0.477899 0.490423 7.130764 255 255 255
0.482460 0.464132 7.120678 255 255 255
0.533639 -0.055197 7.371347 255 255 255
0.528712 0.445562 7.109930 255 255 255
0.528712 0.445562 7.109930 255 255 255
0.528712 0.445562 7.109930 255 255 255
0.528712 0.445562 7.109930 255 255 255
0.568575 0.013549 7.381758 255 255 255
0.555565 0.290902 7.094450 255 255 255
0.578418 -0.014215 7.324568 255 255 255
0.566143 0.376286 7.109537 255 255 255
0.570270 0.445604 7.100336 255 255 255
0.570270 0.445604 7.100336 255 255 255
0.580955 0.342551 7.114278 255 255 255
0.598961 -0.001131 7.274402 255 255 255
0.630939 -0.014684 7.311844 255 255 255
0.639316 0.030222 7.355852 255 255 255
0.671920 -0.021951 7.328802 255 255 255
0.671920 -0.021951 7.328802 255 255 255
0.694673 -0.006539 7.314434 255 255 255
0.840325 0.148177 7.532902 255 255 255
0.840325 0.148177 7.532902 255 255 255
2.220920 -0.585011 8.341819 255 255 255
2.308347 -0.457386 8.417746 255 255 255
