ply
format ascii 1.0
element vertex 121
property float x
property float y
property float z
property uchar diffuse_red
property uchar diffuse_green
property uchar diffuse_blue
end_header
-6.026542 -5.007204 9.255922 255 255 255
-6.025195 -5.003873 9.254255 255 255 255
-6.026093 -5.006577 9.255716 255 255 255
-6.026096 -5.006643 9.255771 255 255 255
-6.025077 -5.003838 9.254218 255 255 255
-6.026065 -5.006715 9.255887 255 255 255
-6.025339 -5.005467 9.255007 255 255 255
-6.025339 -5.005467 9.255007 255 255 255
-6.025603 -5.006949 9.255532 255 255 255
-6.025603 -5.006949 9.255532 255 255 255
-6.025493 -5.006366 9.255365 255 255 255
-6.025493 -5.006366 9.255365 255 255 255
-6.025493 -5.006366 9.255365 255 255 255
-6.025483 -5.006336 9.255363 255 255 255
-6.025468 -5.006367 9.255365 255 255 255
-6.025240 -5.006704 9.255018 255 255 255
-6.025385 -5.006204 9.255250 255 255 255
-6.024679 -5.003647 9.254192 255 255 255
-6.025330 -5.006179 9.255179 255 255 255
-6.025422 -5.006331 9.255320 255 255 255
-6.025335 -5.006152 9.255198 255 255 255
-6.025394 -5.006279 9.255288 255 255 255
-6.025394 -5.006279 9.255288 255 255 255
-6.025337 -5.006210 9.255201 255 255 255
-6.025119 -5.005516 9.254888 255 255 255
-6.025254 -5.006534 9.255103 255 255 255
-6.025317 -5.006181 9.255208 255 255 255
-6.025286 -5.006145 9.255173 255 255 255
-6.025437 -5.007103 9.255427 255 255 255
-6.025320 -5.006235 9.255269 255 255 255
-6.025311 -5.006254 9.255306 255 255 255
-6.024904 -5.007172 9.254768 255 255 255
-6.024904 -5.007172 9.254768 255 255 255
-6.025215 -5.006559 9.255251 255 255 255
-6.024898 -5.007189 9.254784 255 255 255
-6.024804 -5.007077 9.254727 255 255 255
-6.024905 -5.007528 9.255014 255 255 255
-6.024879 -5.007554 9.254994 255 255 255
-6.024787 -5.007425 9.254920 255 255 255
-6.024752 -5.007477 9.254880 255 255 255
-6.024751 -5.007463 9.254884 255 255 255
-6.024726 -5.007458 9.254871 255 255 255
-6.024823 -5.007585 9.255032 255 255 255
-6.024700 -5.007351 9.254848 255 255 255
-6.024700 -5.007351 9.254848 255 255 255
-6.024642 -5.006952 9.254773 255 255 255
-6.024642 -5.006952 9.254773 255 255 255
-6.024683 -5.007428 9.254849 255 255 255
-6.024768 -5.007553 9.254999 255 255 255
-6.024735 -5.006926 9.254956 255 255 255
-6.024679 -5.006927 9.254875 255 255 255
-6.024590 -5.007018 9.254737 255 255 255
-6.024670 -5.006911 9.254868 255 255 255
-6.024529 -5.007324 9.254674 255 255 255
-6.024578 -5.007020 9.254757 255 255 255
-6.025393 -5.005865 9.256027 255 255 255
-6.024555 -5.007201 9.254726 255 255 255
-6.024518 -5.007012 9.254703 255 255 255
-6.024515 -5.007029 9.254729 255 255 255
-6.024538 -5.007410 9.254776 255 255 255
-6.024526 -5.007036 9.254771 255 255 255
-6.024503 -5.007303 9.254734 255 255 255
-6.024522 -5.007412 9.254777 255 255 255
-6.024486 -5.007286 9.254726 255 255 255
-6.024493 -5.007164 9.254770 255 255 255
-6.024489 -5.007193 9.254770 255 255 255
-6.024484 -5.007154 9.254776 255 255 255
-6.024477 -5.007150 9.254764 255 255 255
-6.024433 -5.007187 9.254746 255 255 255
-6.025037 -5.006277 9.255733 255 255 255
-6.024436 -5.007165 9.254877 255 255 255
-6.024398 -5.007218 9.254856 255 255 255
-6.024717 -5.005908 9.255412 255 255 255
-6.024703 -5.006014 9.255471 255 255 255
-6.024635 -5.006002 9.255404 255 255 255
-6.025113 -5.006307 9.256166 255 255 255
-6.024629 -5.006011 9.255457 255 255 255
-6.024577 -5.005857 9.255397 255 255 255
-6.024632 -5.006253 9.255649 255 255 255
-6.024487 -5.005741 9.255450 255 255 255
-6.024470 -5.005704 9.255504 255 255 255
-6.024527 -5.006235 9.255638 255 255 255
-6.024411 -5.005730 9.255482 255 255 255
-6.024411 -5.005730 9.255482 255 255 255
-6.024411 -5.005730 9.255482 255 255 255
-6.024411 -5.005730 9.255482 255 255 255
-6.024521 -5.006198 9.255674 255 255 255
-6.024352 -5.005832 9.255429 255 255 255
-6.024466 -5.006185 9.255607 255 255 255
-6.024371 -5.005782 9.255471 255 255 255
-6.024373 -5.005728 9.255480 255 255 255
-6.024373 -5.005728 9.255480 255 255 255
-6.024359 -5.005811 9.255472 255 255 255
-6.024416 -5.006151 9.255563 255 255 255
-6.024419 -5.006184 9.255605 255 255 255
-6.024405 -5.006205 9.255633 255 255 255
-6.024405 -5.006205 9.255633 255 255 255
-6.024379 -5.006189 9.255626 255 255 255
-6.024401 -5.006334 9.255911 255 255 255
-6.024406 -5.006345 9.255975 255 255 255
-6.024451 -5.006440 9.256131 255 255 255
-6.024563 -5.006478 9.256589 255 255 255
-6.024200 -5.006423 9.256047 255 255 255
-6.024200 -5.006423 9.256047 255 255 255
-6.024170 -5.006528 9.256006 255 255 255
-6.024906 -5.008027 9.257511 255 255 255
-6.024875 -5.007998 9.257509 255 255 255
-6.024870 -5.008026 9.257519 255 255 255
-6.024770 -5.007879 9.257410 255 255 255
-6.024849 -5.007985 9.257542 255 255 255
-6.024849 -5.007985 9.257542 255 255 255
-6.024788 -5.007996 9.257524 255 255 255
-6.024770 -5.007951 9.257497 255 255 255
-6.024770 -5.007951 9.257497 255 255 255
-6.024758 -5.007922 9.257486 255 255 255
-6.024111 -5.007299 9.256736 255 255 255
-6.024192 -5.006976 9.256994 255 255 255
-6.025427 -5.009649 9.259902 255 255 255
-6.023627 -5.006312 9.258025 255 255 255
-6.023627 -5.006312 9.258025 255 255 255
-6.023665 -5.006407 9.258083 255 255 255
